9.70380020 -36.21858597 -173.02189636 0.268202 -0.963362 -0.001203
7.81461573 -36.67226410 -171.21203613 0.201881 -0.979409 -0.001154
6.10677862 -36.99453735 -171.95941162 0.167869 -0.985809 -0.001127
5.00687838 -37.15887451 -173.06388855 0.135260 -0.990809 -0.001100
2.83070517 -37.38884735 -172.50794983 0.067624 -0.997710 -0.001040
2.01695156 -37.44391251 -169.76013184 0.067624 -0.997710 -0.001040
1.81435096 -37.45474243 -172.03784180 0.033281 -0.999445 -0.001009
0.70224464 -37.49232483 -170.85171509 0.033281 -0.999445 -0.001009
-0.59848815 -37.49465179 -171.99279785 0.000978 -0.999999 -0.000978
-1.74439692 -37.45710754 -168.90586853 -0.033281 -0.999445 -0.001009
-5.67274952 -37.06834793 -169.91630554 -0.135260 -0.990809 -0.001100
-6.59106112 -36.91195297 -173.44352722 -0.167869 -0.985809 -0.001127
-9.29187202 -36.32881927 -170.28031921 -0.234487 -0.972119 -0.001178
-13.62831688 -34.93018723 -169.13203430 -0.362873 -0.931838 -0.001264
-14.28763866 -34.66996384 -172.00564575 -0.393609 -0.919277 -0.001282
-15.01851273 -34.35632324 -171.79447937 -0.393609 -0.919277 -0.001282
-17.16664124 -33.33414459 -169.45646667 -0.456129 -0.889912 -0.001314
-19.56403351 -31.98745537 -173.12803650 -0.516071 -0.856545 -0.001340
-22.37691879 -30.08537674 -172.56956482 -0.597153 -0.802126 -0.001366
-24.04598999 -28.77301025 -173.48506165 -0.651358 -0.758770 -0.001377
-24.42745781 -28.44552994 -169.60557556 -0.651358 -0.758770 -0.001377
-25.48472786 -27.50275993 -173.89749146 -0.677534 -0.735490 -0.001380
-26.16894913 -26.85261345 -169.64564514 -0.700167 -0.713977 -0.001381
-27.47521400 -25.51764488 -173.79586792 -0.724826 -0.688930 -0.001381
-30.59209633 -21.68112946 -173.43840027 -0.811146 -0.584843 -0.001363
-31.36305809 -20.55188370 -170.07064819 -0.830587 -0.556887 -0.001355
-31.73016357 -19.97684097 -170.08676147 -0.848828 -0.528668 -0.001345
-33.17089844 -17.48064804 -172.52043152 -0.881656 -0.471891 -0.001322
-33.37479782 -17.09820366 -169.11592102 -0.881656 -0.471891 -0.001322
-33.89276123 -16.04375648 -170.36949158 -0.897798 -0.440405 -0.001307
-34.81280518 -13.92856121 -173.70762634 -0.925729 -0.378186 -0.001273
-34.75431824 -14.07146168 -171.83602905 -0.925729 -0.378186 -0.001273
-34.97800064 -13.51535797 -171.56619263 -0.937612 -0.347682 -0.001255
-35.35328674 -12.50205898 -170.17288208 -0.937612 -0.347682 -0.001255
-35.45922470 -12.19179630 -169.00723267 -0.949175 -0.314746 -0.001234
-36.22211456 -9.69010925 -171.50559998 -0.967932 -0.251210 -0.001191
-36.91788101 -6.56173849 -171.52410889 -0.982547 -0.186011 -0.001141
-37.36297607 -3.16127825 -170.40965271 -0.996509 -0.083483 0.001057
-37.40766144 -2.62740993 -171.62019348 -0.997558 -0.069839 -0.001042
-37.36201477 3.21147513 -172.88865662 -0.996132 0.087863 0.001059
-37.47941208 1.22835577 -171.08692932 -0.999445 0.033281 -0.001009
-36.93676758 -6.46084213 -177.10751343 -0.986241 -0.165311 -0.001125
-34.52284241 -14.63704777 -176.58792114 -0.925729 -0.378186 -0.001273
-34.31055832 -15.12307453 -179.93067932 -0.912475 -0.409130 0.001291
-33.66415024 -16.51037025 -181.20283508 -0.897798 -0.440405 0.001307
-33.33459854 -17.17378044 -180.81364441 -0.883337 -0.468736 -0.001320
-32.55554199 -18.60145187 -176.13272095 -0.865851 -0.500299 -0.001334
-32.43445969 -18.81117249 -178.69055176 -0.865851 -0.500299 -0.001334
-30.99252319 -21.10514069 -184.99060059 -0.830587 -0.556887 -0.001355
-30.92452812 -21.20650482 -184.03724670 -0.830587 -0.556887 0.001355
-30.51020241 -21.79526520 -182.96644592 -0.811146 -0.584843 -0.001363
-30.51296616 -21.79091644 -180.10348511 -0.811146 -0.584843 0.001363
-30.09685898 -22.36763000 -175.34362793 -0.811146 -0.584843 -0.001363
-29.98433876 -22.51858711 -178.32723999 -0.790530 -0.612421 -0.001370
-29.29144096 -23.41446877 -182.39422607 -0.790530 -0.612421 0.001370
-29.25215149 -23.46363068 -178.72666931 -0.768784 -0.639507 -0.001375
-27.95521736 -24.98824310 -184.06819153 -0.748548 -0.663079 -0.001379
-27.45013809 -25.54402542 -177.81553650 -0.724826 -0.688930 -0.001381
-27.06636238 -25.94824219 -181.74771118 -0.724826 -0.688930 0.001381
-26.04915428 -26.97039986 -175.30975342 -0.700167 -0.713977 -0.001381
-26.52973175 -26.49819374 -183.58525085 -0.702951 -0.711237 -0.001381
-25.23411560 -27.73305321 -175.53810120 -0.677534 -0.735490 -0.001380
-25.09293175 -27.86279106 -176.02226257 -0.677534 -0.735490 -0.001380
-24.85560036 -28.07798386 -176.80215454 -0.651358 -0.758770 -0.001377
-24.69576263 -28.21547699 -181.04196167 -0.651358 -0.758770 -0.001377
-24.15786934 -28.67746162 -182.01757813 -0.651358 -0.758770 0.001377
-23.30840683 -29.37003708 -178.06237793 -0.624527 -0.781002 -0.001373
-21.46970940 -30.73929214 -177.18988037 -0.572458 -0.819933 -0.001360
-21.93402863 -30.41612244 -182.03297424 -0.572458 -0.819933 -0.001360
-20.44045448 -31.43367004 -184.93667603 -0.544370 -0.838844 -0.001351
-20.01126289 -31.71086121 -177.55677795 -0.544370 -0.838844 -0.001351
-19.58413696 -31.97539139 -176.84706116 -0.516071 -0.856545 -0.001340
-19.04356766 -32.30060959 -184.72053528 -0.516071 -0.856545 -0.001340
-19.52555847 -32.01059341 -180.03614807 -0.514100 -0.857729 0.001342
-18.01503944 -32.88442993 -182.60571289 -0.484515 -0.874782 0.001327
-17.54902458 -33.13858414 -181.69097900 -0.456129 -0.889912 -0.001314
-16.86720657 -33.48735046 -178.85139465 -0.456129 -0.889912 -0.001314
-16.37612724 -33.73293304 -180.93913269 -0.424733 -0.905318 -0.001299
-15.36401272 -34.20805740 -174.82849121 -0.393609 -0.919277 -0.001282
-14.73340988 -34.47924423 -184.03109741 -0.393609 -0.919277 -0.001282
-14.72893906 -34.48073578 -180.56887817 -0.393609 -0.919277 0.001282
-14.10013866 -34.74641418 -183.67356873 -0.362873 -0.931838 -0.001264
-13.61007977 -34.93729401 -178.03117371 -0.362873 -0.931838 -0.001264
-12.39455318 -35.38679123 -174.55657959 -0.332624 -0.943059 -0.001246
-10.25897598 -36.06478882 -176.99647522 -0.268202 -0.963362 -0.001203
-9.45306110 -36.28890991 -184.81298828 -0.268202 -0.963362 0.001203
-8.05038548 -36.62381363 -176.93373108 -0.201881 -0.979409 -0.001154
-7.03879786 -36.83185196 -180.68376160 -0.201881 -0.979409 0.001154
-6.79303980 -36.87761307 -183.09004211 -0.167869 -0.985809 -0.001127
-5.92281580 -37.02639771 -182.71649170 -0.167869 -0.985809 0.001127
-4.61208200 -37.21258545 -180.01281738 -0.135260 -0.990809 0.001100
-3.52660894 -37.32939148 -176.36318970 -0.101730 -0.994811 -0.001071
-2.99388933 -37.37780762 -175.69171143 -0.067624 -0.997710 -0.001040
-2.12126875 -37.43750381 -183.73892212 -0.067624 -0.997710 0.001040
-1.65238583 -37.46021652 -174.98196411 -0.033281 -0.999445 -0.001009
0.48030388 -37.49547958 -184.92965698 -0.000978 -0.999999 -0.000978
0.75184429 -37.49073410 -183.93371582 0.033281 -0.999445 -0.001009
1.36661100 -37.47016144 -181.55361938 0.033281 -0.999445 0.001009
2.63297963 -37.40222931 -174.84364319 0.067624 -0.997710 -0.001040
1.93945563 -37.44918442 -182.45016479 0.067624 -0.997710 -0.001040
2.90111971 -37.38408279 -175.59255981 0.067624 -0.997710 -0.001040
3.33938861 -37.34843063 -176.86727905 0.101730 -0.994811 -0.001071
3.73158813 -37.30897522 -183.26087952 0.099398 -0.995047 -0.001069
4.32101202 -37.24861145 -178.41882324 0.101730 -0.994811 -0.001071
4.78155375 -37.18950653 -177.77192688 0.135260 -0.990809 -0.001100
4.86387777 -37.17864609 -184.62376404 0.132811 -0.991141 -0.001098
5.06881571 -37.15088654 -182.43794250 0.135260 -0.990809 0.001100
5.53869009 -37.08657455 -178.03971863 0.135260 -0.990809 -0.001100
6.48526144 -36.93009949 -180.41557312 0.167869 -0.985809 0.001127
7.29329681 -36.77967834 -184.32485962 0.201881 -0.979409 -0.001154
7.87705278 -36.65966797 -181.20018005 0.201881 -0.979409 0.001154
8.07244205 -36.61928177 -176.79940796 0.201881 -0.979409 -0.001154
8.30667210 -36.56633377 -183.84594727 0.234487 -0.972119 -0.001178
9.22143078 -36.34613419 -181.82759094 0.234487 -0.972119 0.001178
9.58856010 -36.25065994 -182.71214294 0.265352 -0.964151 -0.001201
11.56102180 -35.66953659 -174.80552673 0.300017 -0.953933 -0.001225
11.02011967 -35.83956909 -183.65112305 0.300017 -0.953933 -0.001225
10.90210152 -35.87635422 -180.24969482 0.300017 -0.953933 0.001225
12.47542095 -35.35838699 -175.42140198 0.332624 -0.943059 -0.001246
13.13933754 -35.12073898 -177.27024841 0.362873 -0.931838 -0.001264
14.61420345 -34.52982712 -177.00994873 0.393609 -0.919277 -0.001282
14.71928120 -34.48517990 -184.62680054 0.393609 -0.919277 -0.001282
14.97747135 -34.37442017 -182.55235291 0.393609 -0.919277 0.001282
15.05878258 -34.33904266 -178.36648560 0.393609 -0.919277 -0.001282
16.27057838 -33.78238297 -174.64178467 0.424733 -0.905318 -0.001299
16.43183708 -33.70742416 -184.26246643 0.424733 -0.905318 0.001299
16.11290359 -33.85644531 -179.66387939 0.424733 -0.905318 -0.001299
17.11699867 -33.35954285 -175.35371399 0.456129 -0.889912 -0.001314
17.52518082 -33.15139008 -183.63943481 0.456129 -0.889912 0.001314
17.44537354 -33.19152832 -176.88063049 0.456129 -0.889912 -0.001314
18.04972458 -32.86463547 -177.25122070 0.484515 -0.874782 -0.001327
17.83646965 -32.98318863 -181.38662720 0.484515 -0.874782 -0.001327
18.70629692 -32.50020981 -175.08851624 0.484515 -0.874782 -0.001327
18.92592430 -32.37038040 -177.22436523 0.516071 -0.856545 -0.001340
19.64867401 -31.93681717 -180.60400391 0.514100 -0.857729 0.001342
19.46755791 -32.04535294 -178.76170349 0.516071 -0.856545 -0.001340
21.77921104 -30.52394485 -180.14694214 0.572458 -0.819933 0.001360
22.37864685 -30.08408546 -174.99966431 0.597153 -0.802126 -0.001366
22.31492615 -30.13213348 -182.93443298 0.597153 -0.802126 -0.001366
23.29941559 -29.37765121 -183.88764954 0.624527 -0.781002 -0.001373
23.94135666 -28.86277390 -177.22074890 0.624527 -0.781002 -0.001373
24.01089859 -28.80313492 -177.78158569 0.651358 -0.758770 -0.001377
24.22875595 -28.61643028 -181.31353760 0.651358 -0.758770 0.001377
25.18699837 -27.77635002 -175.34127808 0.677534 -0.735490 -0.001380
25.30541611 -27.66806412 -183.30509949 0.674661 -0.738126 -0.001380
25.55003548 -27.44286728 -180.34104919 0.677534 -0.735490 0.001380
25.96429253 -27.05402184 -184.99050903 0.700167 -0.713977 -0.001381
26.40051270 -26.62492943 -179.20950317 0.700167 -0.713977 -0.001381
27.25923920 -25.74485016 -179.63024902 0.724826 -0.688930 -0.001381
27.98276901 -24.95694351 -184.53488159 0.745961 -0.665988 -0.001379
28.05258942 -24.87790298 -180.47421265 0.748548 -0.663079 0.001379
28.86103630 -23.93544960 -181.16540527 0.768784 -0.639507 0.001375
29.60231400 -23.01212502 -174.57002258 0.790530 -0.612421 -0.001370
30.09347725 -22.37231827 -179.19467163 0.811146 -0.584843 -0.001363
30.53417015 -21.76142883 -178.62063599 0.811146 -0.584843 -0.001363
30.91029930 -21.22655296 -180.33755493 0.830587 -0.556887 0.001355
31.47397995 -20.38663292 -176.19367981 0.830587 -0.556887 -0.001355
31.94755554 -19.62807465 -179.79209900 0.848828 -0.528668 0.001345
32.13803482 -19.32247543 -176.20860291 0.848828 -0.528668 -0.001345
32.91673660 -17.95776749 -181.68540955 0.881656 -0.471891 -0.001322
33.64571762 -16.54738617 -175.07408142 0.897798 -0.440405 -0.001307
35.29571533 -12.65750694 -178.25506592 0.937612 -0.347682 -0.001255
35.59188843 -11.79269981 -174.96151733 0.949175 -0.314746 -0.001234
35.39368439 -12.38905525 -182.80668640 0.949175 -0.314746 -0.001234
35.51654434 -12.01936340 -179.17608643 0.949175 -0.314746 -0.001234
35.85903549 -10.95921898 -175.19979858 0.959249 -0.282560 -0.001213
36.27201080 -9.49886894 -184.69363403 0.967932 -0.251210 -0.001191
36.24756241 -9.59182644 -178.27043152 0.967932 -0.251210 -0.001191
36.57314301 -8.26218414 -175.70053101 0.975939 -0.218041 -0.001166
36.55450821 -8.34711552 -183.07800293 0.975939 -0.218041 -0.001166
36.85545349 -6.89387226 -174.93220520 0.982547 -0.186011 -0.001141
36.85919952 -6.87651110 -183.05242920 0.982547 -0.186011 -0.001141
36.79551697 -7.21323109 -180.37440491 0.982962 -0.183806 0.001142
36.98683929 -6.17074680 -185.20970154 0.988281 -0.152643 -0.001114
37.28473663 -3.99052215 -183.06452942 0.992979 -0.118289 0.001085
37.31200027 -3.74221611 -181.52200317 0.996331 -0.085581 -0.001057
37.40533447 -2.63924766 -177.32061768 0.996523 -0.083307 -0.001055
37.43441010 -2.14326644 -184.58282471 0.998629 -0.052343 -0.001026
37.49183273 -0.51418561 -183.26704407 0.999857 -0.016879 -0.000993
37.48214340 1.08811617 -183.22326660 0.999857 0.016879 0.000993
37.48863220 0.67311573 -177.13566589 0.999857 0.016879 0.000993
37.47384262 1.36051297 -176.71055603 0.998739 0.050193 0.001024
37.45812988 1.67482626 -181.30509949 0.998739 0.050193 0.001024
37.41908646 2.44012928 -178.79425049 0.998739 0.050193 0.001024
37.40097427 2.69208288 -183.72834778 0.996523 0.083307 0.001055
37.37133408 3.04403186 -181.53405762 0.996509 0.083483 0.001057
37.28917694 3.94887781 -175.25241089 0.992979 0.118289 0.001085
37.29490662 3.90127254 -180.99098206 0.992979 0.118289 0.001085
37.15786362 5.05378866 -180.92532349 0.988665 0.150135 0.001112
37.03245163 5.87473536 -182.11643982 0.988281 0.152643 0.001114
36.91474533 6.57944107 -184.64991760 0.983039 0.183394 0.001139
36.78338242 7.27781439 -180.41256714 0.982962 0.183806 0.001142
36.77304840 7.33228779 -178.87362671 0.982547 0.186011 0.001141
36.60450745 8.12163258 -176.03120422 0.975939 0.218041 0.001166
36.33424759 9.25702953 -177.05021667 0.967932 0.251210 0.001191
36.21389389 9.72289848 -181.51225281 0.967932 0.251210 0.001191
35.81476212 11.10955811 -180.53507996 0.959249 0.282560 0.001213
35.93359756 10.70673084 -179.76275635 0.959249 0.282560 0.001213
35.67228699 11.55082607 -174.73977661 0.949175 0.314746 0.001234
35.64508057 11.63360214 -184.77177429 0.949175 0.314746 0.001234
35.41513824 12.32443237 -176.65364075 0.949175 0.314746 0.001234
35.33749390 12.54469776 -175.51785278 0.937612 0.347682 0.001255
35.33059692 12.56360531 -181.42106628 0.937612 0.347682 0.001255
35.09646988 13.19548130 -178.11526489 0.937612 0.347682 0.001255
34.76058578 14.05614758 -176.61868286 0.925729 0.378186 0.001273
34.93885803 13.62057972 -182.59057617 0.925729 0.378186 0.001273
34.27145386 15.21005154 -174.41459656 0.912475 0.409130 0.001291
34.20877457 15.35030651 -181.85667419 0.912475 0.409130 0.001291
33.63232803 16.57575989 -184.91139221 0.897798 0.440405 0.001307
33.67758942 16.48292351 -181.27627563 0.897798 0.440405 0.001307
33.06797409 17.67369270 -178.88128662 0.881656 0.471891 0.001322
32.74706268 18.26972961 -174.39437866 0.865851 0.500299 0.001334
32.30692291 19.03318214 -183.55563354 0.865851 0.500299 0.001334
32.04343414 19.47424698 -178.49995422 0.848828 0.528668 0.001345
32.09788513 19.38702583 -181.98381042 0.848828 0.528668 0.001345
31.58655167 20.20732498 -180.05995178 0.848828 0.528668 0.001345
31.10833359 20.93136787 -179.26707458 0.830587 0.556887 0.001355
30.35176468 22.01511002 -184.23542786 0.811146 0.584843 0.001363
30.34043121 22.03029251 -180.99607849 0.811146 0.584843 0.001363
29.50315094 23.14053345 -181.03605652 0.790530 0.612421 0.001370
29.79764748 22.75977325 -179.31629944 0.790530 0.612421 0.001370
28.99850273 23.76939774 -176.84948730 0.768784 0.639507 0.001375
27.98218536 24.95770836 -183.96176147 0.748548 0.663079 0.001379
27.87917709 25.07354355 -182.38697815 0.748548 0.663079 0.001379
26.62452316 26.40467072 -177.71903992 0.700167 0.713977 0.001381
26.52406120 26.50372887 -184.01971436 0.702951 0.711237 0.001381
25.88502502 27.13178253 -177.95545959 0.700167 0.713977 0.001381
25.11370659 27.84426308 -182.64128113 0.677534 0.735490 0.001380
24.98431206 27.96260452 -178.97662354 0.677534 0.735490 0.001380
24.01692581 28.79796028 -177.60873413 0.651358 0.758770 0.001377
23.53796768 29.18649483 -182.66001892 0.624527 0.781002 0.001373
23.09096527 29.54434204 -179.99841309 0.624527 0.781002 0.001373
23.78512383 28.98798370 -179.69340515 0.624527 0.781002 0.001373
22.57263756 29.93945694 -181.76838684 0.598464 0.801148 0.001369
22.32475090 30.12436676 -177.60900879 0.597153 0.802126 0.001366
21.66958046 30.60017967 -175.77706909 0.572458 0.819933 0.001360
21.28946877 30.86537361 -185.11396790 0.572458 0.819933 0.001360
21.18512535 30.93737030 -177.51469421 0.572458 0.819933 0.001360
19.94204330 31.75635147 -183.91452026 0.544370 0.838844 0.001351
19.82379150 31.83157730 -177.41116333 0.516071 0.856545 0.001340
19.81518555 31.83675957 -182.91822815 0.516071 0.856545 0.001340
18.98750877 32.33355331 -180.55625916 0.514100 0.857729 0.001342
18.63203812 32.54142761 -174.46952820 0.484515 0.874782 0.001327
17.67096901 33.07486343 -176.01142883 0.484515 0.874782 0.001327
17.48118019 33.17320633 -178.11026001 0.456129 0.889912 0.001314
15.39628792 34.19320297 -180.63294983 0.424733 0.905318 0.001299
15.73119831 34.03575134 -178.60607910 0.424733 0.905318 0.001299
13.42731285 35.00851822 -175.77163696 0.362873 0.931838 0.001264
13.06981945 35.14815521 -181.91877747 0.362873 0.931838 0.001264
12.57964134 35.32209778 -183.24284363 0.332624 0.943059 0.001246
11.58976269 35.66052246 -175.80909729 0.300017 0.953933 0.001225
11.23829556 35.77120972 -182.80497742 0.300017 0.953933 0.001225
10.89301682 35.87912750 -177.70593262 0.300017 0.953933 0.001225
10.45060825 36.01170349 -178.89303589 0.268202 0.963362 0.001203
10.33016872 36.04506683 -179.76385498 0.268202 0.963362 0.001203
8.04880810 36.62413788 -175.71002197 0.201881 0.979409 0.001154
7.19190216 36.80023575 -176.55816650 0.201881 0.979409 0.001154
6.78456068 36.87895584 -178.76472473 0.167869 0.985809 0.001127
6.58589125 36.91305542 -185.15455627 0.167869 0.985809 0.001127
6.28971338 36.96373749 -182.55448914 0.167869 0.985809 0.001127
4.82703876 37.18332291 -175.39379883 0.135260 0.990809 0.001100
5.46806717 37.09631348 -183.66098022 0.135260 0.990809 0.001100
4.60890722 37.21325684 -181.74882507 0.135260 0.990809 0.001100
3.49825215 37.33229828 -179.94938660 0.101730 0.994811 0.001071
2.20510173 37.43117905 -177.13449097 0.067624 0.997710 0.001040
1.53058147 37.46456528 -183.55787659 0.035367 0.999374 0.001010
0.70902407 37.49209595 -177.03662109 0.033281 0.999445 0.001009
0.21693310 37.49465179 -177.39390564 0.000978 0.999999 0.000978
-0.42016327 37.49494934 -181.92601013 0.000978 0.999999 0.000978
-1.45921111 37.46726227 -184.85334778 -0.033281 0.999445 0.001009
-1.57797945 37.46286392 -180.74693298 -0.033281 0.999445 0.001009
-0.95349073 37.48383331 -178.76092529 -0.033281 0.999445 0.001009
-2.99698257 37.37759781 -174.52629089 -0.067624 0.997710 0.001040
-2.80216718 37.39108276 -181.95524597 -0.067624 0.997710 0.001040
-3.64089870 37.31777191 -177.25361633 -0.101730 0.994811 0.001071
-5.03829193 37.15460205 -175.32733154 -0.135260 0.990809 0.001100
-5.18854475 37.13466263 -185.15640259 -0.135260 0.990809 0.001100
-5.05515337 37.15231323 -177.56330872 -0.135260 0.990809 0.001100
-6.44763327 36.93640900 -175.19314575 -0.167869 0.985809 0.001127
-6.12985754 36.99074554 -180.80780029 -0.167869 0.985809 0.001127
-7.56229448 36.72411728 -175.39933777 -0.201881 0.979409 0.001154
-7.33778524 36.77051926 -185.11183167 -0.201881 0.979409 0.001154
-8.50780392 36.51775742 -174.57418823 -0.234487 0.972119 0.001178
-8.51307964 36.51671219 -182.48480225 -0.234487 0.972119 0.001178
-9.70259476 36.21912003 -183.86152649 -0.265352 0.964151 0.001201
-10.68598366 35.94408417 -177.73257446 -0.300017 0.953933 0.001225
-12.05690193 35.50539780 -176.08271790 -0.332624 0.943059 0.001246
-12.28431511 35.42583084 -182.68196106 -0.329630 0.944109 0.001244
-13.37461281 35.02915955 -185.25898743 -0.362371 0.931992 -0.008900
-14.94804859 34.38656235 -177.72065735 -0.393609 0.919277 0.001282
-15.65074348 34.07375336 -181.62965393 -0.424733 0.905318 0.001299
-16.42940140 33.70777512 -175.92951965 -0.424733 0.905318 0.001299
-16.82194519 33.51074600 -184.55784607 -0.456129 0.889912 0.001314
-17.89285088 32.95170975 -177.16984558 -0.484515 0.874782 0.001327
-18.14867973 32.80992126 -181.14094543 -0.484515 0.874782 0.001327
-18.84615898 32.41824722 -174.90097046 -0.516071 0.856545 0.001340
-20.29368973 31.52852249 -184.30007935 -0.541234 0.840871 0.001350
-20.55125237 31.36192131 -182.51745605 -0.544370 0.838844 0.001351
-21.26974106 30.87880898 -181.96401978 -0.569351 0.822094 0.001359
-21.85243034 30.47290993 -174.93548584 -0.572458 0.819933 0.001360
-22.36372185 30.09564209 -184.01354980 -0.597153 0.802126 0.001366
-22.56818771 29.94242287 -178.82907104 -0.597153 0.802126 0.001366
-23.78020668 28.99200058 -180.22702026 -0.624527 0.781002 0.001373
-24.30332756 28.55240250 -181.54487610 -0.651358 0.758770 0.001377
-24.62673378 28.27445793 -179.74513245 -0.651358 0.758770 0.001377
-25.31644058 27.65740395 -174.38639832 -0.677534 0.735490 0.001380
-25.45411682 27.53137207 -182.44905090 -0.677534 0.735490 0.001380
-26.46126366 26.56550026 -181.43019104 -0.700167 0.713977 0.001381
-26.91017342 26.11206818 -175.57203674 -0.724826 0.688930 0.001381
-27.82000732 25.13986588 -184.73533630 -0.745961 0.665988 0.001379
-27.74597359 25.22303772 -180.31294250 -0.748548 0.663079 0.001379
-28.67110252 24.16407013 -178.04281616 -0.768784 0.639507 0.001375
-28.70270157 24.12634277 -182.49684143 -0.768784 0.639507 0.001375
-29.45421219 23.20376205 -183.27357483 -0.790530 0.612421 0.001370
-29.81939125 22.73246574 -183.40626526 -0.790530 0.612421 0.001370
-29.82895851 22.71932220 -177.85391235 -0.790530 0.612421 0.001370
-30.61169815 21.65395927 -175.11305237 -0.811146 0.584843 0.001363
-30.28872681 22.10209846 -182.39123535 -0.811146 0.584843 0.001363
-30.74732208 21.46595573 -175.84873962 -0.811146 0.584843 0.001363
-30.80488586 21.38344002 -175.37258911 -0.830587 0.556887 0.001355
-31.17565727 20.83182907 -184.85066223 -0.830587 0.556887 0.001355
-31.63755989 20.12541199 -177.93212891 -0.848828 0.528668 0.001345
-31.55314255 20.26099014 -183.49287415 -0.848828 0.528668 0.001345
-32.04469681 19.47221947 -176.19802856 -0.848828 0.528668 0.001345
-32.43775940 18.80545235 -179.07044983 -0.865851 0.500299 0.001334
-33.15573120 17.50909233 -174.42419434 -0.881656 0.471891 0.001322
-33.29414368 17.25082970 -185.03233337 -0.881656 0.471891 0.001322
-33.08693695 17.63846016 -180.98390198 -0.881656 0.471891 0.001322
-33.52614594 16.79120064 -179.93792725 -0.897798 0.440405 0.001307
-33.91406631 16.00032616 -177.66099548 -0.897798 0.440405 0.001307
-34.16847610 15.43925095 -175.72418213 -0.912475 0.409130 0.001291
-34.44636917 14.82081604 -180.06510925 -0.912475 0.409130 0.001291
-34.83979034 13.86326313 -181.63801575 -0.925729 0.378186 0.001273
-35.54842758 11.92607498 -176.24441528 -0.948187 0.317711 -0.001236
-36.33266830 9.27339649 -177.52191162 -0.966452 0.256844 -0.001195
-36.49758530 8.59822750 -176.57659912 -0.974073 0.226229 -0.001172
-36.86077881 6.87489414 -175.55363464 -0.982962 0.183806 0.001142
-35.20772934 -12.89507675 -174.92326355 -0.937612 -0.347682 -0.001255
35.38827896 2.78129745 -169.98976135 -0.997543 -0.069985 -0.003134
35.24899673 4.20472765 -169.95625305 -0.992653 -0.120949 0.003269
34.78184509 7.08765602 -171.71986389 -0.981965 -0.189060 0.001146
34.15362930 9.67275524 -170.40280151 -0.961569 -0.274561 -0.001210
31.93692398 15.49122429 -169.87268066 -0.900357 -0.435151 -0.001307
28.84074783 20.69822884 -171.47363281 -0.810210 -0.586138 -0.001366
27.42356300 22.54003143 -171.29026794 -0.779928 -0.625868 0.001376
23.93825531 26.21218109 -170.92202759 -0.673154 -0.739501 -0.001382
22.32667542 27.59589005 -171.12301636 -0.633537 -0.773712 0.001374
1.19191384 35.47790146 -170.09896851 -0.043880 -0.999032 -0.003061
-0.68805993 35.49045181 -170.15548706 0.025118 -0.999680 -0.003014
-2.04547596 35.43934250 -171.77146912 0.043880 -0.999032 0.003061
-6.03338623 34.98080826 -170.31202698 0.163122 -0.986605 -0.001125
-9.31000900 34.25486755 -170.57064819 0.265967 -0.963981 -0.001203
-16.22170639 31.57423592 -170.64140320 0.460355 -0.887734 -0.001319
-17.02270699 31.15080833 -170.00955200 0.488806 -0.872392 -0.001332
-21.75408936 28.04878235 -169.44372559 0.606331 -0.795211 -0.001369
-21.89537239 27.94078064 -170.48359680 0.619822 -0.784741 0.001374
-26.73267937 23.35553741 -171.18685913 0.745961 -0.665988 0.001379
-29.47375488 19.78520775 -169.99887085 0.830587 -0.556887 0.001355
-32.38527679 14.53144073 -171.39202881 0.914819 -0.403862 0.001290
-34.47027206 8.47991562 -170.31874084 0.970628 -0.240583 0.001185
-34.64707947 7.71903658 -169.91262817 0.974588 -0.224003 -0.001173
-34.72212219 7.37675333 -170.72286987 0.978191 -0.207706 0.001160
-35.36920547 3.03193212 -171.30210876 0.996311 -0.085761 -0.003176
-35.48962784 0.80085486 -171.17611694 0.999367 -0.035439 0.003038
-35.24242020 -4.25612354 -171.10815430 0.992653 0.120949 -0.003269
-34.13237381 -9.75257206 -170.15162659 0.961569 0.274561 0.001210
-33.14308167 -12.70578098 -169.57142639 0.933865 0.357624 -0.001264
-32.90415192 -13.32228374 -169.59680176 0.921514 0.388343 -0.001282
-31.81203651 -15.74910450 -171.29212952 0.900357 0.435151 0.001307
-30.83881378 -17.57956123 -170.57038879 0.867007 0.498295 0.001336
-29.76198006 -19.34408569 -169.92312622 0.840077 0.542465 -0.001353
-28.87002945 -20.65499306 -170.41897583 0.810210 0.586138 0.001366
-27.17182350 -22.84211540 -170.71804810 0.767655 0.640861 0.001378
-23.99447632 -26.16130829 -169.85487366 0.684630 0.728889 -0.001383
-12.00013161 -33.40876770 -170.83636475 0.332624 0.943059 -0.001246
-5.68691683 -35.03681946 -169.58685303 0.163122 0.986605 -0.001125
-5.09037542 -35.12929535 -171.21519470 0.147959 0.988988 0.003337
-4.28657150 -35.23802567 -170.14497375 0.130653 0.991423 -0.003294
-3.57934880 -35.31434250 -169.43377686 0.094960 0.995476 -0.003201
-2.35160899 -35.42026520 -171.29873657 0.078950 0.996874 0.003158
-0.64283216 -35.49238586 -170.49452209 0.025118 0.999680 -0.003014
5.33990479 -35.09484100 -171.48994446 -0.163122 0.986605 0.001125
6.56594801 -34.88417816 -170.21574402 -0.181191 0.983447 -0.001140
12.67086411 -33.15972900 -170.29689026 -0.348502 0.937307 -0.001258
13.76405334 -32.72032928 -170.19021606 -0.381263 0.924466 -0.001275
16.91816902 -31.20463753 -169.89094543 -0.475046 0.879960 -0.001323
19.48281479 -29.67398643 -170.18803406 -0.548745 0.835989 0.001355
20.11326408 -29.25000572 -170.78897095 -0.564391 0.825507 -0.001360
24.51210976 -25.67591095 -170.78524780 -0.684630 0.728889 0.001383
24.90482521 -25.29599571 -170.87292480 -0.698755 0.715359 -0.001384
28.16201401 -21.61011505 -170.62382507 -0.789499 0.613750 -0.001373
31.33635139 -16.67445374 -170.17515564 -0.884429 0.466672 -0.001322
33.55703354 -11.58087158 -169.82328796 -0.945912 0.324419 0.001243
34.68886948 -7.52735424 -169.85185242 -0.978191 0.207706 -0.001160
34.91828156 -6.38066626 -169.80622864 -0.984851 0.173397 -0.001133
35.13507080 -5.06431818 -170.83569336 -0.990424 0.138019 -0.003312
35.37085342 -2.98453403 -171.00442505 -0.996311 0.085761 0.003176
32.35498810 0.74419981 -171.99052429 -0.905843 -0.423596 -0.003910
28.87846947 -1.16732574 -175.96722412 0.833916 0.551876 -0.004068
31.30693436 -1.82798028 -173.41967773 -0.456129 0.889912 0.001314
29.68578911 1.82129586 -173.38485718 0.390517 -0.920595 -0.001280
32.44197845 0.45599517 -174.72396851 -0.975939 -0.218041 -0.001166
32.48124695 0.25623706 -174.95429993 -0.997400 -0.072063 -0.001044
29.10592461 0.93237376 -176.99349976 0.428195 -0.283928 0.857924
31.47245789 1.62424791 -176.86138916 -0.270764 -0.442095 0.855125
29.95866776 -0.97776663 -177.32939148 0.267584 0.438838 0.857799
29.51543427 -0.84354466 -177.22177124 0.382097 0.341876 0.858558
28.71238327 -14.79218578 -172.48690796 -0.799835 -0.600218 -0.001367
25.31449890 -17.24372482 -172.82928467 0.799835 0.600218 0.001367
24.93865776 -16.37830925 -179.66630554 0.977134 0.212622 0.001162
26.42245293 -18.01799965 -175.76179504 0.212622 0.977134 0.001162
24.93103027 -15.65675926 -174.73359680 0.977134 -0.212622 -0.001162
28.91707993 -16.85399818 -176.17341614 -0.936483 0.350710 0.001257
25.46972656 -14.56799126 -175.81900024 0.707106 -0.707106 -0.001384
26.72813606 -13.91944408 -176.88966370 0.072063 -0.997400 -0.001044
28.46720314 -14.50492191 -177.04364014 -0.707106 -0.707106 -0.001384
24.90521812 -16.07295609 -177.92462158 0.997400 0.072063 0.001044
26.32971954 -14.01439667 -177.24131775 0.350710 -0.936483 -0.001257
28.97311401 -15.29623699 -178.25395203 -0.936483 -0.350710 -0.001257
26.75665474 -17.25443077 -180.29225159 0.110504 0.503727 0.856766
-28.73996162 -14.16799355 -171.81898499 0.479109 -0.525852 0.702805
-26.40136337 -18.01232529 -173.04179382 -0.350710 0.936483 0.001257
-29.07423019 -15.68093586 -179.73602295 0.977134 -0.212622 -0.001162
-28.83999252 -17.00099564 -173.55978394 0.878249 0.478202 0.001325
-28.85363388 -15.02398491 -173.50616455 0.878249 -0.478202 -0.001325
-28.03043747 -17.82391739 -175.33509827 0.478202 0.878249 0.001325
-24.90743637 -16.10398865 -176.88502502 -0.997400 0.072063 0.001044
-28.19995689 -14.28173447 -176.73448181 0.600218 -0.799835 -0.001367
-27.17377090 -18.08757210 -177.94433594 0.072063 0.997400 0.001044
-27.54950523 -18.02409935 -177.15939331 0.212622 0.977134 0.001162
-26.27259254 -15.88829517 -180.61933899 -0.503727 -0.110504 0.856766
-26.18424416 18.34309769 -171.86718750 -0.203329 -0.681385 0.703115
-25.61522102 17.57750320 -179.41654968 -0.707106 -0.707106 0.001384
-27.92137909 17.88346672 -179.34294128 0.478202 -0.878249 0.001325
-24.94538307 16.40921974 -176.92802429 -0.977134 -0.212622 -0.001162
-27.54596329 13.97512817 -178.07760620 0.212622 0.977134 0.001162
-28.15891457 14.25101185 -177.31098938 0.600218 0.799835 0.001367
-28.90235710 15.11321545 -178.38078308 0.878249 0.478202 0.001325
-28.83196640 17.01569366 -177.61637878 0.878249 -0.478202 -0.001325
-26.31128883 14.24301052 -179.92515564 -0.179739 0.482771 0.857104
-26.78193283 15.85208511 -180.90325928 -0.412130 0.310255 0.856674
-27.16367340 15.68125725 -180.84603882 0.248069 0.452003 0.856828
24.74246407 15.95755482 -172.08973694 0.706420 0.044062 0.706420
25.25518227 14.23562813 -171.86628723 0.479109 0.525852 0.702805
24.90033531 15.99530125 -172.88409424 0.997400 0.072063 0.001044
25.05010223 16.76601219 -172.33810425 0.936483 -0.350710 -0.001257
25.21268845 17.09747505 -173.13153076 0.878249 -0.478202 -0.001325
26.25459862 14.04241562 -178.79711914 0.350710 0.936483 0.001257
27.22826195 18.08367348 -173.61001587 -0.072063 -0.997400 -0.001044
25.53105164 17.49333382 -175.04296875 0.707106 -0.707106 -0.001384
28.31342697 14.36667728 -176.75549316 -0.600218 0.799835 0.001367
25.41929626 17.38157845 -176.77896118 0.707106 -0.707106 -0.001384
25.85811996 14.23825932 -177.80448914 0.600218 0.799835 0.001367
25.29686356 17.22016525 -177.96018982 0.799835 -0.600218 -0.001367
28.58052254 15.12768555 -179.97433472 -0.452003 0.248069 0.856828
-31.53163338 12.02663040 -185.32662964 -0.001384 -0.707106 -0.707106
16.84862518 -5.60856438 -180.41120911 0.039563 0.999217 0.001014
18.03935814 5.86188602 -182.17419434 0.345472 -0.938428 -0.001256
17.22241783 5.64888239 -179.05320740 0.128214 -0.991741 -0.003288
17.76708031 5.76709557 -179.77671814 0.329630 -0.944109 -0.001244
18.83053017 6.21950054 -177.60000610 0.000978 0.000978 -0.999999
28.38576698 1.54596519 -177.60000610 0.000978 0.000978 -0.999999
23.35464478 -5.67362690 -177.60000610 0.000978 0.000978 -0.999999
19.02867126 6.31404114 -180.31527710 0.378186 -0.925729 -0.001273
23.27406311 6.59999990 -182.72431946 -0.000978 -0.999999 -0.000978
24.23053169 6.59999990 -180.99124146 -0.000978 -0.999999 -0.000978
21.46865463 6.59999990 -177.65652466 -0.000978 -0.999999 -0.000978
21.06927681 6.59999990 -180.87377930 -0.000978 -0.999999 -0.000978
28.48613167 2.90141678 -177.89657593 -0.998831 -0.048248 -0.003080
27.35553169 5.40089703 -178.70460510 -0.740750 -0.671779 -0.001379
26.08427811 6.26908541 -179.44451904 -0.424733 -0.905318 -0.001299
26.24956322 6.19172287 -180.20242310 -0.424733 -0.905318 -0.001299
28.50000000 -1.24687862 -181.18664551 -0.999999 0.000978 0.000978
28.50000000 -1.78827763 -181.60166931 -0.999999 0.000978 0.000978
28.50000000 0.92420292 -178.90162659 -0.999999 0.000978 0.000978
28.15821266 -4.20961046 -181.75198364 -0.916186 0.400751 -0.001289
26.71291161 -5.93116045 -178.30023193 -0.516071 0.856545 0.001340
27.31954956 -5.43458319 -178.59130859 -0.678911 0.734219 0.001383
22.39157486 -6.59999990 -182.56529236 0.000978 0.999999 0.000978
23.20220375 -6.59999990 -181.63150024 0.000978 0.999999 0.000978
22.99342155 -6.59999990 -177.78253174 0.000978 0.999999 0.000978
19.45118523 -6.45576191 -181.18113708 0.280324 0.959898 -0.003641
18.63144684 -6.13464355 -181.07604980 0.452981 0.891519 0.001313
-33.38090897 12.00000000 -178.52261353 -0.000978 -0.999999 -0.000978
-34.58527374 12.00000000 -183.53392029 -0.000978 -0.999999 -0.000978
-31.09265900 12.00000000 -179.26991272 -0.000978 -0.999999 -0.000978
-32.26401138 12.00000000 -183.90184021 -0.000978 -0.999999 -0.000978
-30.70601654 11.99857330 -182.72209167 -0.085581 -0.996331 -0.001057
-28.33255196 10.85824490 -179.20344543 -0.773712 -0.633537 -0.001374
-27.18751717 8.54535294 -179.32189941 -0.794201 -0.607653 -0.001372
-24.94980049 7.26501417 -179.37118530 -0.088235 -0.996095 -0.003189
-26.76779366 8.06124878 -178.12666321 -0.686096 -0.727510 -0.001380
-31.58081245 6.03365374 -177.80000305 0.000978 0.000978 -0.999999
-31.67367744 7.36332035 -177.80000305 0.000978 0.000978 -0.999999
-36.55266571 6.57308006 -177.80000305 0.000978 0.000978 -0.999999
-35.77406693 8.47718239 -177.80000305 0.000978 0.000978 -0.999999
-36.11529541 9.18944836 -177.80000305 0.000978 0.000978 -0.999999
-28.30369377 10.49449825 -177.80000305 0.000978 0.000978 -0.999999
-29.19123650 9.23839760 -177.80000305 0.000978 0.000978 -0.999999
-31.91329384 -12.00000000 -184.27449036 0.000978 0.999999 0.000978
-32.60623169 -12.00000000 -184.99052429 0.000978 0.999999 0.000978
-34.24113846 -12.00000000 -177.85508728 0.000978 0.999999 0.000978
-33.80472183 -12.00000000 -178.98307800 0.000978 0.999999 0.000978
-29.85011864 -11.85304356 -181.45346069 -0.308835 0.951115 0.001230
-27.82755661 -8.92392921 -177.80000305 0.000978 0.000978 -0.999999
-29.71809959 -11.35699177 -177.80000305 0.000978 0.000978 -0.999999
-32.74100494 -8.57484818 -177.80000305 0.000978 0.000978 -0.999999
-34.34731293 -6.46329641 -177.80000305 0.000978 0.000978 -0.999999
-29.92187500 -5.24341059 -177.80000305 0.000978 0.000978 -0.999999
-33.78359985 -6.05360985 -177.80000305 0.000978 0.000978 -0.999999
-36.69394684 3.43268538 -173.90422058 -0.707356 -0.451044 -0.544248
-29.05601692 -0.83877593 -173.12681580 0.001106 0.142660 -0.989771
-28.24881363 -0.72486883 -173.11004639 -0.001102 0.137718 -0.990471
-29.30084801 2.29100561 -173.64347839 0.001334 -0.500299 -0.865851
-35.26466751 4.74592972 -177.62901306 -0.000999 -0.999736 -0.022971
-35.99707794 4.27101898 -175.72335815 -0.006603 -0.888792 -0.458263
-35.59585571 -1.01049840 -173.16273499 -0.003543 0.235024 -0.971983
-36.14473343 -3.89523315 -175.08915710 0.006815 0.824619 -0.565648
-35.40742493 -3.02400708 -174.14228821 0.001377 0.654300 -0.756234
-35.29045486 -3.44156075 -174.53392029 0.001381 0.724826 -0.688930
-33.31621170 -2.68840981 -173.88975525 0.001362 0.578659 -0.815569
-35.09826279 3.56840515 -174.66696167 -0.001381 -0.724826 -0.688930
-33.90466309 3.69379139 -174.82164001 -0.001371 -0.785794 -0.618487
-29.98015022 -0.47754511 -173.07524109 0.001106 0.142660 -0.989771
-30.93564987 -1.01188791 -173.16323853 0.001178 0.234487 -0.972119
-30.13111115 -2.85524869 -174.00857544 0.001362 0.578659 -0.815569
-31.93218803 1.40189481 -173.26445007 -0.001242 -0.326641 -0.945148
-32.47295380 4.18816853 -175.56961060 -0.001316 -0.888291 -0.459279
-14.15454865 19.45502281 -179.30000305 0.000978 0.000978 0.999999
-19.45959473 20.33008385 -179.30000305 0.000978 -0.000978 0.999999
-22.18097687 20.37186813 -179.30000305 0.000978 0.000978 0.999999
-21.49573326 19.05665016 -179.30000305 0.000978 0.000978 0.999999
23.08866310 -17.65861702 -179.30000305 0.000978 0.000978 0.999999
21.87680626 -16.79646301 -179.30000305 0.000978 0.000978 0.999999
21.96945381 -15.70013428 -179.30000305 0.000978 0.000978 0.999999
21.97793007 -14.59663296 -179.30000305 0.000978 0.000978 0.999999
21.40915680 -13.99359703 -179.30000305 0.000978 0.000978 0.999999
19.15724754 -13.66611767 -179.30000305 -0.000978 -0.000978 0.999999
16.08853149 -13.18651867 -179.30000305 0.000978 -0.000978 0.999999
14.72247696 -15.53898144 -179.30000305 0.000978 0.000978 0.999999
13.00482750 -17.10311317 -179.30000305 0.000978 0.000978 0.999999
-21.33837318 -21.95272446 -179.30000305 -0.000978 -0.000978 0.999999
-15.78433037 -21.21505928 -179.30000305 0.000978 -0.000978 0.999999
-12.69006729 -15.99363136 -179.30000305 0.000978 0.000978 0.999999
-13.03905964 -15.52505112 -179.30000305 0.000978 0.000978 0.999999
-16.90090752 -13.12473011 -179.30000305 -0.000978 -0.000978 0.999999
-17.80912781 -13.43720531 -179.30000305 0.000978 -0.000978 0.999999
-18.90896416 -12.75566006 -179.30000305 0.000978 -0.000978 0.999999
-18.64768219 -14.36540318 -179.30000305 0.000978 -0.000978 0.999999
-22.05506325 -14.90048695 -179.30000305 0.000978 0.000978 0.999999
-20.76299477 -16.00790596 -179.30000305 0.000978 0.000978 0.999999
12.67337036 16.95868301 -179.30000305 0.000978 0.000978 0.999999
14.47309113 16.81127548 -179.30000305 0.000978 0.000978 0.999999
16.88303947 13.87035751 -179.30000305 -0.000978 -0.000978 0.999999
18.57447815 14.55892467 -179.30000305 0.000978 -0.000978 0.999999
22.63489342 19.68015862 -179.30000305 0.000978 0.000978 0.999999
19.11925697 22.09146500 -179.30000305 -0.000978 -0.000978 0.999999
17.71674538 23.32840919 -179.30000305 -0.000978 -0.000978 0.999999
15.03023720 22.19636726 -179.30000305 0.000978 -0.000978 0.999999
14.59863663 22.13908386 -179.30000305 0.000978 -0.000978 0.999999
12.53938484 18.55137253 -179.30000305 0.000978 0.000978 0.999999
19.29106903 12.64868832 -182.80000305 -0.000978 0.000978 -0.999999
17.93893051 10.04077244 -182.80000305 -0.000978 0.000978 -0.999999
18.03391647 7.76804304 -182.80000305 -0.000978 0.000978 -0.999999
16.39009666 9.59228802 -182.80000305 0.000978 0.000978 -0.999999
13.09928989 6.70134687 -182.80000305 0.000978 0.000978 -0.999999
12.95305538 9.24983215 -182.80000305 0.000978 0.000978 -0.999999
10.57605076 6.38423777 -182.80000305 0.000978 0.000978 -0.999999
9.97208309 8.62666893 -182.80000305 0.000978 0.000978 -0.999999
12.07371998 11.41568756 -182.80000305 0.000978 0.000978 -0.999999
7.00525808 8.60417938 -182.80000305 0.000978 0.000978 -0.999999
13.73710918 14.73698425 -182.80000305 0.000978 0.000978 -0.999999
14.61814976 15.17449760 -182.80000305 0.000978 0.000978 -0.999999
8.31656170 12.35996914 -182.80000305 0.000978 0.000978 -0.999999
13.95979500 16.88948631 -182.80000305 0.000978 0.000978 -0.999999
11.40901470 18.62228584 -182.80000305 0.000978 0.000978 -0.999999
16.33937263 23.61787796 -182.80000305 0.000978 0.000978 -0.999999
15.46667767 22.48538208 -182.80000305 0.000978 0.000978 -0.999999
16.55760765 23.63748550 -182.80000305 -0.000978 0.000978 -0.999999
16.85152817 25.77957153 -182.80000305 0.000978 0.000978 -0.999999
19.19608688 24.58913422 -182.80000305 0.000978 0.000978 -0.999999
21.23568344 22.70436859 -182.80000305 0.000978 0.000978 -0.999999
21.41139030 20.44107246 -182.80000305 0.000978 0.000978 -0.999999
21.55519485 18.88856506 -182.80000305 0.000978 0.000978 -0.999999
24.30034065 17.39487457 -182.80000305 0.000978 0.000978 -0.999999
21.98508263 16.44635201 -182.80000305 0.000978 0.000978 -0.999999
20.52166557 15.91482830 -182.80000305 0.000978 0.000978 -0.999999
23.62088776 14.47686768 -182.80000305 0.000978 0.000978 -0.999999
24.90887070 8.77925205 -182.80000305 0.000978 0.000978 -0.999999
22.98750114 14.01423645 -182.80000305 0.000978 0.000978 -0.999999
25.10451126 7.87616825 -182.80000305 0.000978 0.000978 -0.999999
22.41308594 14.18081093 -182.80000305 0.000978 0.000978 -0.999999
27.93658257 11.47092915 -182.80000305 -0.000978 0.000978 -0.999999
25.58551216 7.34946489 -182.80000305 0.000978 0.000978 -0.999999
26.29407310 7.30565834 -182.80000305 0.000978 0.000978 -0.999999
28.93061447 3.81780648 -182.80000305 0.000978 0.000978 -0.999999
30.07737541 2.83795810 -182.80000305 0.000978 0.000978 -0.999999
7.41424084 12.18667698 -182.80000305 0.000978 0.000978 -0.999999
7.45778370 13.10587692 -182.80000305 0.000978 0.000978 -0.999999
4.55752659 10.03971291 -182.80000305 0.000978 0.000978 -0.999999
7.16645384 14.77241993 -182.80000305 0.000978 0.000978 -0.999999
4.68459415 14.34486675 -182.80000305 -0.000978 0.000978 -0.999999
4.00879812 16.00512886 -182.80000305 -0.000978 0.000978 -0.999999
1.02667570 14.57839298 -182.80000305 -0.000978 0.000978 -0.999999
-1.00106454 11.03458691 -182.80000305 -0.000978 0.000978 -0.999999
-0.23976159 10.21375847 -182.80000305 -0.000978 0.000978 -0.999999
-4.83119440 14.20164967 -182.80000305 -0.000978 0.000978 -0.999999
-8.48100090 17.05068588 -182.80000305 -0.000978 0.000978 -0.999999
0.40337086 16.97237396 -182.80000305 -0.000978 0.000978 -0.999999
4.02700901 15.74977589 -182.80000305 -0.000978 0.000978 -0.999999
1.60299134 11.68331146 -182.80000305 -0.000978 0.000978 -0.999999
-5.65937614 18.29403877 -182.80000305 0.000978 0.000978 -0.999999
-8.27739334 18.61146164 -182.80000305 0.000978 0.000978 -0.999999
-3.20294094 19.33999062 -182.80000305 0.000978 0.000978 -0.999999
-11.67478561 19.06630135 -182.80000305 0.000978 0.000978 -0.999999
-6.12178850 10.95358181 -182.80000305 0.000978 0.000978 -0.999999
-5.36123323 9.84121323 -182.80000305 0.000978 0.000978 -0.999999
-9.06644154 11.51786137 -182.80000305 0.000978 0.000978 -0.999999
-6.80542183 8.51709080 -182.80000305 0.000978 0.000978 -0.999999
-9.04671860 5.72034979 -182.80000305 0.000978 0.000978 -0.999999
-10.94446659 5.92342758 -182.80000305 0.000978 0.000978 -0.999999
-12.69079208 9.61574268 -182.80000305 -0.000978 0.000978 -0.999999
-10.06173420 10.41415596 -182.80000305 -0.000978 0.000978 -0.999999
-12.85061169 8.65409946 -182.80000305 -0.000978 0.000978 -0.999999
-17.64378166 12.18141842 -182.80000305 0.000978 0.000978 -0.999999
-17.87565613 10.94070721 -182.80000305 0.000978 0.000978 -0.999999
-22.32457542 8.65475273 -182.80000305 0.000978 0.000978 -0.999999
-18.87385941 13.74605751 -182.80000305 0.000978 0.000978 -0.999999
-22.21206665 8.46406174 -182.80000305 0.000978 0.000978 -0.999999
-23.15573120 11.51445198 -182.80000305 0.000978 0.000978 -0.999999
-26.11164856 9.01198673 -182.80000305 0.000978 0.000978 -0.999999
-27.56288147 9.40227318 -182.80000305 0.000978 0.000978 -0.999999
-27.71184158 12.83030319 -182.80000305 -0.000978 0.000978 -0.999999
-22.48622894 14.22497368 -182.80000305 -0.000978 0.000978 -0.999999
-26.63222694 15.08379173 -182.80000305 0.000978 0.000978 -0.999999
-22.41215324 15.79345703 -182.80000305 0.000978 0.000978 -0.999999
-21.07313919 18.73207092 -182.80000305 0.000978 0.000978 -0.999999
-18.43736076 22.22962379 -182.80000305 -0.000978 0.000978 -0.999999
-18.10488319 22.90015984 -182.80000305 0.000978 0.000978 -0.999999
-16.89590454 26.06967545 -182.80000305 -0.000978 0.000978 -0.999999
-12.44075871 23.56713867 -182.80000305 -0.000978 0.000978 -0.999999
-15.66671276 26.20524597 -182.80000305 -0.000978 0.000978 -0.999999
-15.75290871 23.44840240 -182.80000305 -0.000978 0.000978 -0.999999
-14.42442703 19.97298050 -182.80000305 0.000978 0.000978 -0.999999
-14.25076771 26.32903862 -182.80000305 -0.000978 0.000978 -0.999999
-10.11230946 21.57397079 -182.80000305 -0.000978 0.000978 -0.999999
-11.74251175 27.21952820 -182.80000305 -0.000978 0.000978 -0.999999
-9.90214539 27.41205788 -182.80000305 -0.000978 0.000978 -0.999999
-8.75811577 26.44599152 -182.80000305 -0.000978 0.000978 -0.999999
-5.78252935 30.10585022 -182.80000305 -0.000978 0.000978 -0.999999
-4.79150486 29.44872665 -182.80000305 -0.000978 0.000978 -0.999999
-6.83558559 25.19428444 -182.80000305 -0.000978 0.000978 -0.999999
-4.10308981 28.29851723 -182.80000305 -0.000978 0.000978 -0.999999
5.78866482 22.01348305 -182.80000305 -0.000978 0.000978 -0.999999
0.04008651 27.34146881 -182.80000305 -0.000978 0.000978 -0.999999
1.75889206 28.68677139 -182.80000305 -0.000978 0.000978 -0.999999
1.75267816 28.82169724 -182.80000305 -0.000978 0.000978 -0.999999
8.16774178 21.05736542 -182.80000305 -0.000978 0.000978 -0.999999
-3.08038402 23.88073349 -182.80000305 -0.000978 0.000978 -0.999999
-8.84522152 21.09406090 -182.80000305 -0.000978 0.000978 -0.999999
3.09085274 21.09672928 -182.80000305 -0.000978 0.000978 -0.999999
3.08728695 23.87422943 -182.80000305 -0.000978 0.000978 -0.999999
2.40515661 25.27791405 -182.80000305 -0.000978 0.000978 -0.999999
-1.24935365 25.20035553 -182.80000305 -0.000978 0.000978 -0.999999
-7.40560961 21.91180992 -182.80000305 -0.000978 0.000978 -0.999999
0.82947403 30.69368744 -182.80000305 -0.000978 0.000978 -0.999999
4.07669640 19.53318405 -182.80000305 0.000978 0.000978 -0.999999
2.19015813 20.43724632 -182.80000305 0.000978 0.000978 -0.999999
8.17878914 19.26221466 -182.80000305 0.000978 0.000978 -0.999999
7.22724771 25.68082237 -182.80000305 0.000978 0.000978 -0.999999
6.03315353 30.56234550 -182.80000305 0.000978 0.000978 -0.999999
7.30723619 30.06948471 -182.80000305 0.000978 0.000978 -0.999999
8.63868713 27.25323296 -182.80000305 0.000978 0.000978 -0.999999
9.87222195 29.09461784 -182.80000305 -0.000978 0.000978 -0.999999
12.89012527 26.17331123 -182.80000305 0.000978 0.000978 -0.999999
15.64965343 26.39625168 -182.80000305 0.000978 0.000978 -0.999999
29.61569595 0.14806092 -182.80000305 0.000978 0.000978 -0.999999
30.40396118 -2.76061821 -182.80000305 0.000978 0.000978 -0.999999
30.67099571 -6.15654707 -182.80000305 0.000978 0.000978 -0.999999
28.87084389 -6.79332685 -182.80000305 0.000978 0.000978 -0.999999
29.15673828 -9.40422058 -182.80000305 0.000978 0.000978 -0.999999
23.57810974 -11.19049263 -182.80000305 -0.000978 0.000978 -0.999999
23.80507278 -10.72461605 -182.80000305 -0.000978 0.000978 -0.999999
21.77828217 -12.94627666 -182.80000305 -0.000978 0.000978 -0.999999
26.53392220 -10.91014099 -182.80000305 -0.000978 0.000978 -0.999999
22.07158470 -15.07013130 -182.80000305 0.000978 0.000978 -0.999999
25.87754822 -14.61887169 -182.80000305 0.000978 0.000978 -0.999999
23.07811165 -15.70529461 -182.80000305 0.000978 0.000978 -0.999999
22.27691269 -18.29347992 -182.80000305 0.000978 0.000978 -0.999999
20.31961823 -20.88763046 -182.80000305 -0.000978 0.000978 -0.999999
18.83587456 -22.74982262 -182.80000305 -0.000978 0.000978 -0.999999
18.21472168 -24.13431740 -182.80000305 -0.000978 0.000978 -0.999999
15.06113720 -22.38478470 -182.80000305 0.000978 0.000978 -0.999999
11.74074078 -22.04286766 -182.80000305 0.000978 0.000978 -0.999999
11.53093719 -18.29354858 -182.80000305 0.000978 0.000978 -0.999999
12.26310635 -17.13363075 -182.80000305 0.000978 0.000978 -0.999999
13.84657192 -16.07165146 -182.80000305 0.000978 0.000978 -0.999999
10.99176979 -14.40729713 -182.80000305 0.000978 0.000978 -0.999999
11.25172424 -12.84202290 -182.80000305 0.000978 0.000978 -0.999999
14.96313000 -12.32140732 -182.80000305 -0.000978 0.000978 -0.999999
16.35272026 -10.99071026 -182.80000305 -0.000978 0.000978 -0.999999
15.02566051 -10.28757191 -182.80000305 -0.000978 0.000978 -0.999999
17.15114784 -10.59237862 -182.80000305 0.000978 0.000978 -0.999999
13.62970352 -26.10105324 -182.80000305 0.000978 0.000978 -0.999999
12.20690155 -24.75279808 -182.80000305 0.000978 0.000978 -0.999999
8.41742516 -23.92096710 -182.80000305 0.000978 0.000978 -0.999999
10.60672283 -27.70450592 -182.80000305 0.000978 0.000978 -0.999999
6.38081598 -26.30375481 -182.80000305 0.000978 0.000978 -0.999999
7.32553387 -23.68399048 -182.80000305 0.000978 0.000978 -0.999999
4.64323139 -26.55383873 -182.80000305 -0.000978 0.000978 -0.999999
4.62955904 -29.32189560 -182.80000305 -0.000978 0.000978 -0.999999
4.20576477 -30.77148628 -182.80000305 -0.000978 0.000978 -0.999999
-0.27228093 -29.87081528 -182.80000305 0.000978 0.000978 -0.999999
-2.53283167 -29.86619186 -182.80000305 0.000978 0.000978 -0.999999
-5.34579563 -30.96933937 -182.80000305 0.000978 0.000978 -0.999999
-4.15347481 -28.43512917 -182.80000305 0.000978 0.000978 -0.999999
-4.35150051 -27.29954338 -182.80000305 0.000978 0.000978 -0.999999
